2.550096569424671333e-01 4.092194442298954238e-01 -4.223636075949277480e-01
-3.346606505222087247e-01 -4.047475731814420552e-02 -9.974237085903481237e-02
4.198166035465269452e-01 2.915067913822939616e-01 -2.019024186548515898e-01
-2.112090191088227265e-01 -4.156512145606920949e-01 8.285102303323554906e-02
-3.434639217779443809e-01 3.634973968722698956e-02 -4.490622885338775294e-01
-1.220802713238846593e-01 9.680842216846918813e-02 1.120158155977502012e-01
-3.991783788216196616e-01 -4.210589794167109989e-01 -2.897925351304533326e-01
-2.459776498578697401e-01 1.773909566168739849e-01 -3.585377844981777473e-01
2.224630222420463932e-01 3.885920567763998523e-01 -3.609276680029060991e-02
-3.792019782521854898e-01 -5.385736924408768278e-02 -3.479894265970377987e-01
1.681965184300959759e-02 -1.972773873820795609e-01 1.281266269474751196e-01
-1.317722561096403844e-01 -5.872756639272036505e-02 4.770509843546103523e-01
3.497545094631717699e-01 -1.842987724350675371e-02 -4.067573813714991937e-01
1.205706697447824771e-01 1.905635075480469620e-01 -1.839487930383059133e-01
-1.107151560805363921e-02 -1.283006826872057360e-01 -1.238290336287080073e-01
3.084232467396129662e-01 -4.196749363139589128e-01 9.172667511697307763e-02
-2.455178411459302268e-01 -4.600631765495521996e-03 -6.097151842679260358e-02
3.809814421547951246e-01 3.784813946601756074e-01 -2.936350377660486011e-01
-1.450631725070919975e-01 -1.699903083135561044e-01 -3.072532849102530550e-01
2.473945374794576102e-01 -9.461053067719482623e-02 4.163382828567921967e-01
4.854464347363274257e-01 -2.219778482750605075e-01 4.130600981076383293e-01
3.413290620130626785e-02 4.843198197541820349e-02 4.889856967983755576e-01
1.320062809554126693e-01 -9.456771721659240626e-02 -6.987573932914203922e-02
-3.919837912902873756e-01 -4.901254379091642965e-01 1.880780566457646019e-01
8.729607568754893521e-02 -4.635018628725224854e-01 -4.752945746609638089e-01
-9.170096205491684582e-02 -1.286354550386972218e-01 1.962636045427201825e-02
1.182785114043591879e-01 -2.324485647650184061e-01 2.571037253511291309e-01
-4.114079152788867599e-01 -1.395922049528456332e-01 -2.562149409642912046e-01
4.606556545028300809e-01 -8.199806345379667682e-02 4.314752433818813682e-02
-4.576188819103436112e-01 -4.067867208995470385e-01 -2.898439116920473735e-01
-4.779583493878071243e-01 -1.110293527180800099e-01 -3.285776233130589530e-01
-2.466287466561929431e-01 -4.689378373727508542e-01 3.833759579207699497e-01
-4.129013204461272624e-01 -9.279957727241883170e-03 -2.269535499666500700e-01
4.358636342404210717e-01 -1.442831597388297693e-01 1.627162300258188088e-01
6.662439323436364358e-02 -3.323867283221184632e-01 3.908358071833898384e-01
-3.161662100317232937e-01 -2.189394221631831838e-01 2.086891104273973507e-01
-2.008178270937007737e-01 -4.707020232760016354e-01 -2.517874942470926802e-01
4.393621302699358688e-01 -2.893343348509614943e-01 -8.113984309130073402e-02
1.500296664397553492e-01 -3.237826614170614681e-01 3.820902877268750331e-02
-2.002663584018433696e-01 2.252642210322081118e-01 2.619501991717775313e-01
-1.667130276460474514e-01 -4.396504957026741156e-01 -6.271324337995176634e-02
-6.029946574189148922e-02 -4.346318446377867017e-01 1.166924648509273243e-01
1.396712236931725304e-01 2.244965757262318284e-02 1.290486971699245089e-01
4.351975430496711761e-01 -8.537175431949883819e-02 -3.648899789216676348e-01
-4.820137314709205256e-03 -4.616049426443951109e-01 -3.421110090167992501e-01
-3.183492572420341116e-01 3.391923404989538593e-02 9.084677030566112865e-02
-2.618736496824864979e-01 -2.767243396099012820e-01 -2.183567193588744626e-01
-3.851130195094137898e-01 -5.410932707511706408e-02 -4.830849975510460581e-01
-2.672132192851183197e-01 -1.141596756329247286e-01 -7.261354758292337674e-02
-9.702141647207207509e-02 -1.497958522991780228e-01 -1.396835544944944330e-01
3.634604140345116807e-01 -4.678410918728845846e-01 -4.410917162553424919e-01
-3.888485873654863312e-01 -2.007149489269521858e-02 4.042843814910314082e-01
-4.445258854791498404e-01 2.354495868014372384e-02 -1.754410202592433521e-01
-3.949500881575848110e-01 3.758528046922826604e-02 -2.682279623816410385e-01
1.783664217716057765e-01 1.345216060670513247e-01 3.323786805970995184e-01
-4.324177020045609776e-01 3.785797157720278694e-01 1.144243495434510427e-01
-4.602894107831931869e-01 3.118769937598194764e-01 3.967680701031949253e-01
3.480272458468158803e-04 8.326281043481342792e-02 3.335943473883608013e-01
-4.944523510458814775e-01 2.828786130452596304e-01 -4.693608152822971169e-01
-1.415893105529895113e-01 -4.017527236943875257e-01 -4.914604012206527095e-01
-4.500944621084899122e-01 -1.881814644189454544e-01 -4.975644499929174902e-01
-9.881950624235380509e-02 4.465503103247564498e-01 -3.020382504659989698e-01
2.696811491797755922e-01 -9.356669383775439996e-03 -7.599273994077360150e-02
1.697894777929098709e-01 1.802470473560748854e-01 1.179535724833241650e-01
-3.616442299903355195e-02 -3.483336519030462153e-01 1.494494718566274916e-01
2.850958062021480277e-02 4.072653083093760173e-01 3.193284169566473762e-01
-4.632888468661234826e-01 -4.293813644592597845e-01 2.575739220085710990e-01
1.565327132446774350e-01 -1.942314519628897118e-01 3.462596611213739628e-01
3.980544255099450757e-01 7.551600892353849126e-03 -2.389272297763512798e-01
-2.748957945201478958e-01 -1.157200343353326222e-01 -4.495302899522191087e-01
-3.668449092699784808e-01 -3.892251107623507789e-01 4.269517947662111457e-01
4.092803623230946153e-01 6.349269357243625400e-02 -1.895337391824374329e-01
1.099159278867565259e-01 4.674320380738250513e-02 -3.929886463186221812e-01
-2.540205542132426553e-01 -4.494781119359342325e-01 -3.710858889431627450e-01
2.282947520751906767e-01 2.697720614618193125e-02 2.475233472434225090e-01
1.309010553465442817e-01 -1.394959127158880152e-01 4.231182074852087860e-01
1.675811510952436301e-01 -2.141655988799416876e-01 -3.964218270474486605e-01
-2.477565212501139369e-01 -1.788881378337647821e-02 -1.728699543253070514e-01
2.426643886284501894e-01 -4.214124800858898290e-02 1.463190126739547514e-01
2.673291603949280448e-01 2.713714620059282101e-02 4.600748825019456145e-01
8.966365509608054118e-02 3.463266255290374795e-01 2.540459232039473658e-01
1.305645674484218199e-01 2.737672025060062797e-01 4.354761499528292390e-02
-3.299764631271169257e-01 9.598346562838011575e-02 -4.023203769663181717e-01
-1.710588653782458834e-01 4.495803895906317349e-01 8.824187876925537743e-02
2.205462045605715016e-01 2.049887438130654216e-01 -4.428954241531637415e-01
3.030570705878494753e-01 -4.755109558599843744e-01 2.488292903371736031e-01
3.264253721906185124e-01 -1.469351581223629077e-01 -9.240895824180261897e-02
-1.144073487376626730e-01 4.572570111827152228e-01 8.458401315829533473e-04
-4.604392361879762197e-01 3.722081532067639253e-01 1.524546051579914741e-01
1.460113946049300671e-01 -1.561867220554596924e-01 -2.387314433831810856e-02
-3.960738176066920246e-01 1.210689268316536005e-01 2.490922634598679020e-01
-2.349028017232031029e-01 4.003627408990271253e-01 -2.641063921665631753e-02
-1.610759130178063270e-02 -1.653770802358286440e-01 -1.115717444469065400e-01
5.758910566694419586e-02 -1.904084687551627075e-01 2.467140017576218147e-01
1.093094484920917875e-01 -1.820132902786536500e-01 -1.888467048498501111e-01
-4.856412041815756364e-01 -1.723429204872601872e-01 1.165971042124736012e-01
-6.661199280128604627e-02 -3.090572366887412992e-01 -2.480184703684295000e-01
-3.810636137944289903e-01 3.697189484503784485e-01 4.722606288321182788e-01
-1.021711301060803656e-01 -4.438738542324081049e-01 4.471077967468662928e-01
1.825947619550439827e-01 2.376977499588561749e-02 -1.225653751345048281e-01
4.186228790709914938e-01 6.635951864587041893e-02 -3.827973576838963332e-01
2.666507377443729787e-01 -2.712927021939004479e-01 7.895432797099566358e-02
-1.288093219789515631e-01 -2.683119848262165430e-01 1.192261105057396131e-01
2.723809110641209896e-01 1.843949014754036053e-01 -1.574750036243247608e-01
4.836937979860357339e-01 -1.878552769704007197e-01 -3.245986611589509740e-01
1.655043112619045687e-01 3.127624103952797441e-02 7.810166412293784166e-02
3.522444982156984761e-01 3.767028305243491637e-02 -3.034420801951198676e-01
7.110722461058072152e-02 4.152483850600118265e-01 -4.952546658289991299e-02
2.887865081305862613e-02 -8.732065624857532349e-02 3.272797264024401853e-01
4.069593319183887337e-01 -1.511190859340245662e-01 9.693574670643911873e-03
2.145959283855272126e-01 3.353059661250904488e-01 -3.356342196113939469e-01
-4.266509987534893300e-01 4.771735306842264102e-01 -3.782130664690864785e-01
-6.152651127630526240e-02 8.122797664617609215e-02 -3.721466516174576356e-01
-2.526951145369633611e-01 3.651475961368068068e-01 4.511276610929770836e-01
2.112284183099220058e-01 -2.132589613194035838e-02 -9.251797681716067423e-02
2.583965465470400291e-01 -3.112743929386707631e-01 -3.808762219392208825e-01
3.173792874474880010e-01 2.277434090163764635e-01 -1.218808841909055918e-01
-2.206068954456478215e-01 2.584276903686388849e-02 -1.629284792630496526e-01
-1.746443332902780643e-01 1.751644952265354327e-01 4.265684591692056049e-01
-3.783312392831336135e-01 3.542479385464445407e-01 -2.964844483848624312e-01
-5.734244509333097373e-02 2.559157889212685388e-01 -5.889512755935921717e-02
3.685690633255034321e-01 3.330552975331336762e-01 3.845206157653966450e-01
1.797930733781037960e-01 -9.783845431157800476e-02 3.180909224564330007e-01
4.841423609681245743e-01 3.994878757165880589e-01 1.084045780217094412e-01
-3.804821854688924532e-01 -2.059967670274057694e-01 -4.965877765951942635e-01
-3.538085949806187847e-01 2.337832286380865376e-01 1.274209220559364697e-01
1.497844853743357518e-02 4.726461673814217335e-01 -4.273072028318333215e-01
2.213891260485301160e-01 2.322304939210845243e-01 -4.440040312957842517e-01
1.572142356688120968e-01 1.456762131790451109e-01 -5.621625049429812560e-02
-4.018645653463862599e-01 -2.505028290563338089e-02 1.092878720289065519e-01
4.865812744368198661e-01 3.213174626947302714e-01 -3.482727387358032223e-01
-4.913567982549824631e-01 -2.682814344260736616e-01 3.245777564812992733e-01
3.645703960047428360e-01 -5.881648552713303335e-02 3.746623021973788381e-01
1.609118698086193788e-01 4.042930640151043420e-02 -9.609451227612619828e-02
-2.888638516047487004e-01 -4.483852958841908487e-01 3.315136345028378839e-01
-4.319287362063882751e-01 -3.048007718725345150e-01 7.901867903908565971e-03
-3.847851429992212857e-01 -1.721766149269576829e-01 2.480123500844639839e-01
2.617575759712968964e-01 3.838187549226418360e-01 1.554701051083916541e-01
2.677421412156681946e-01 -1.927306553373000497e-01 9.173525158398521118e-02
1.840823182393187540e-01 3.823175185459537495e-02 -2.662799740397843173e-01
-5.478490238976552185e-02 1.588957975032646575e-01 2.967090247624011301e-01
-2.271099141270332966e-01 1.622932808434336405e-01 -1.252774793060463798e-01
-4.151302577097077950e-01 4.410890635766659962e-01 -8.165857996141867581e-02
-3.008691953982569611e-01 -4.917155628223098818e-01 3.219330008075581562e-01
2.084890906021593660e-01 3.996872564488004320e-01 -4.875790078039452524e-01
6.436610521716334965e-02 2.059123761209763481e-01 1.328913245831429002e-01
3.900308283479519966e-01 -1.669059603186912044e-01 1.886689797382544720e-01
-3.405599408336470457e-01 -2.200106763908387109e-01 8.997310372044975413e-02
1.327523321485628571e-01 2.837812526803509261e-01 -1.823736025657872739e-01
-2.346691634477815480e-02 4.416025476088623059e-01 2.511970980193174441e-01
-1.292355331435623977e-02 -2.800404996207593866e-01 -1.978768325912410031e-01
2.565665717050781280e-01 3.717161273472942007e-01 -1.417707039084910026e-01
-3.705043171036737082e-01 1.826855811654709560e-01 4.479844986096177539e-01
-2.761595674024730496e-01 -4.599019965652627606e-01 -3.589357334778835451e-01
-4.929153649381434743e-01 -4.549776367226486817e-01 4.826982495189614530e-01
-4.800318639189165015e-01 -3.458561026814579442e-01 -4.547112192713943513e-01
3.612547367039599111e-01 -3.964041475094883804e-01 -3.918146619400786346e-02
-4.252762105823442162e-01 3.212221256252256740e-01 -3.767668955756993121e-01
3.849196581876390688e-02 9.169761725818170728e-02 2.779066404213060837e-01
-2.860887119866275530e-01 -3.221948953153420669e-01 2.082440608754644318e-01
-3.595827647200977584e-02 -6.315839248296473141e-02 3.419306896312067634e-01
-4.496786102655959683e-01 2.231691100132993100e-04 -4.173535351560164752e-02
-3.561915707055740565e-02 1.110185966990073769e-01 -2.777204315997527928e-02
2.581529145228278477e-02 -3.581178277075154348e-01 -3.318432839482585717e-01
-4.264579950884361814e-03 -3.296096860853624522e-01 2.254088894618148098e-01
-4.505923297175120634e-01 -3.779674650384891033e-01 -1.039802701250193140e-01
-4.236366577467765016e-01 -1.699515964898303810e-01 2.865138077684099560e-01
-1.631835607657761145e-01 8.492543491653947729e-02 -3.944286896790815122e-01
-1.318497530879803037e-01 3.804978328976305058e-01 -1.617938553764654008e-01
2.637947955016224366e-01 4.382684346638939799e-01 3.690521432496393084e-01
3.929683989077178419e-01 -1.764007648299796838e-01 -4.972246099368455852e-01
-1.423350635702675948e-01 -4.035642734620568106e-01 -1.861392542563168329e-01
-4.804769912158043388e-01 3.248602398738132946e-01 -2.954214220995954321e-02
1.570345548007068270e-02 3.061640494678835589e-01 -3.532742573560223587e-01
1.290551984600500912e-01 -5.538577817067391607e-02 2.086440863207200680e-01
-2.739280194206616947e-02 -3.645367341293972441e-01 3.603167633467777575e-01
3.062822897126782351e-03 3.644270428540652418e-01 -3.364069661536205347e-01
-2.765967617583220406e-01 2.621677967591714564e-01 2.681844499616341526e-01
2.314385984984348443e-01 -7.906027220810907252e-02 -3.745339189877391339e-01
1.961592187893329564e-01 -3.642431270958630396e-01 1.504043639695173962e-02
-3.309687098491496116e-01 1.895873908191528789e-01 -4.868795926549985831e-01
8.607196994759414022e-02 9.112463235478274193e-02 -2.851670884375591131e-01
-4.479041437837846251e-01 -4.854312155506285142e-01 -1.190445701545990165e-01
5.429735190586959526e-02 1.836740991776536491e-01 1.932969879888795095e-01
1.379945965698803345e-01 5.002005072556414689e-02 4.609073165846128139e-01
1.138415854238082892e-01 -3.539943421693593217e-01 -3.133725733891096210e-01
2.418156179525147165e-01 1.980116958795132831e-01 -4.047320099251342507e-01
1.400044210112243448e-01 -3.848979871745762393e-01 -3.282448913932969337e-01
3.423637661585310354e-02 1.680921149055403241e-01 4.362586956689865625e-01
-4.204165624997125983e-01 -3.088870387779356630e-01 -4.447184184052755951e-01
4.750077604055658043e-01 -2.571331895315333016e-01 -4.149819210161642680e-01
4.640304109758554008e-01 4.865380330143347365e-01 1.850800779595077605e-01
-3.070395977600350879e-01 1.505190605042014962e-01 -4.719267397091883032e-01
1.563927907163572550e-01 -1.666067466729915791e-01 1.476602557032317131e-01
4.865466102880994237e-01 -4.063721367046423394e-01 -4.237188176469844914e-01
1.110055797922440135e-01 -2.328209473096036763e-01 -3.975885338050835216e-01
2.382121414666891202e-01 -1.639918829903759256e-01 2.638456561451540949e-01
2.808804609790236384e-01 -1.481091523014896882e-01 1.947386542363246376e-01
2.228564943149239364e-01 -2.266160118456176376e-01 -4.114762367096213014e-01
-2.069521877325083414e-01 -2.873283577519701870e-01 7.111098263261173003e-03
-5.583372570898148535e-02 3.633469406504497012e-01 3.126612906135243231e-01
3.715145678897530113e-01 6.155626611110720514e-02 2.802036021423428558e-01
2.677633716010195952e-01 3.914201580994177698e-01 -3.322748639980543928e-02
3.369108274644091461e-01 3.384240291050066851e-01 4.407145992209047236e-01
1.853408872124078233e-01 -5.993135099956048428e-02 -1.246876425056585580e-01
3.781194847293145589e-02 5.175787242633511642e-02 -2.486552322957459316e-01
3.662717328968214670e-01 4.121726785639717727e-01 2.613775860593154921e-01
-4.262209461071291283e-01 -3.706821262408591666e-01 -1.417482992581555745e-01
-1.087326982382097462e-01 -3.700038094299822333e-01 -9.748474229417347647e-02
-2.156596660373311103e-02 -1.181110507418157152e-01 1.319479581496036946e-01
2.413593075192838056e-01 1.688067643874886503e-01 -4.656142383529444650e-01
2.823608669355434087e-01 5.328687662886211207e-02 2.294923486208507724e-01
3.585105415625940983e-01 -3.136304237204901035e-02 7.465753064012969897e-02
2.552079260283715012e-01 3.147131984890767509e-01 -4.383478323976330859e-02
6.894737046450483131e-02 -3.798772667342750209e-01 9.790407638184805972e-02
4.934306242790154062e-01 -3.665854423163517062e-02 2.077495087745688807e-01
-4.750090299893472423e-02 1.932202055895899662e-01 3.313829984907501469e-01
3.759111544698743312e-01 -2.118427027856221168e-01 -3.173024651401316065e-01
-3.988603483048838161e-01 2.945182691814038911e-01 4.455943945443786580e-01
-4.740042373247482788e-01 3.851706699337861250e-01 4.722310707682250142e-01
4.609296558360327367e-01 2.411634849012377346e-01 3.991660656625473091e-01
1.252650636689193187e-01 -4.757864727440275221e-01 -3.706791521340488949e-01
1.596595514162038043e-01 -1.485014680248175623e-02 3.522188837174808906e-01
2.048650451627566094e-01 -3.858695720540485929e-01 -2.482076813511274738e-01
-1.345911956737935178e-01 -3.452144624710897780e-01 4.235228961938926062e-01
4.586784533786926188e-01 -3.542777925110361936e-01 3.726405660894607230e-01
-1.624841940710352040e-01 -2.318649302938809997e-01 -1.269469816888935121e-02
1.068203278853135929e-01 3.569687008887467705e-02 -1.126655295028801129e-01
-3.306410922060739610e-01 -1.108655086146739244e-01 -1.493841833152130816e-01
4.160534020117716558e-01 2.687506325878799007e-01 1.064074728229142952e-01
1.263181807461983830e-01 3.637060286336291082e-02 -4.591033819388808945e-01
-3.142864173100234915e-02 1.726434849653881720e-01 -4.657364562048882384e-01
4.927326800038223098e-02 -3.944899854529416716e-01 3.738058655353211357e-01
2.193124719169479153e-01 1.912908128549238862e-01 8.047897464867781459e-03
3.014959263425760483e-01 1.510947502428610090e-01 3.704362462563399738e-01
2.678903141479240801e-01 1.693317498558570833e-01 -3.773411642010288114e-01
7.346688996360672963e-02 4.828029986092818859e-01 2.040585294054998444e-01
-3.749907780379579947e-01 4.631562867591745292e-01 -1.179245967887353475e-01
-4.615791966137076097e-01 -1.492830367123202384e-01 3.473468402752517559e-01
7.190726206664010967e-02 -4.736569209773500155e-01 -4.648530835338634537e-01
-3.295209094628450686e-01 4.534841166529068879e-01 6.892360563097876813e-02
3.791095775628584574e-01 -2.857581531612233272e-01 -2.931369214865764405e-02
-2.461531593528298867e-01 -3.177849742218897822e-01 1.121140507577996770e-01
3.523444677248059875e-01 3.128629512498380949e-01 1.321384331688075786e-01
-5.522633413966637761e-02 -1.373449135572756274e-01 1.970169808761882413e-01
3.540761953059241574e-01 3.077147763583452100e-01 -1.439613294678866451e-01
2.271794690921120630e-01 4.412673449830929462e-01 -1.355842840831814611e-01
4.876100509890737289e-01 3.969177034149029559e-01 -2.420191599225064438e-01
3.683411824523977751e-01 -2.110978344234233361e-01 2.685818040692944386e-02
4.268450236771528239e-01 -3.744831981827559941e-01 -8.537367998083578158e-03
3.748848264558959364e-01 -2.178458951593168491e-01 -1.966658676191279653e-03
-4.050175208906725555e-01 3.652469970200784566e-01 4.898307661132923485e-01
1.916985955181516044e-01 3.919042045980178912e-01 -1.525725188242993413e-01
-4.518183382645201140e-01 -4.680505468939498703e-01 2.316318230442603321e-01
1.198465963850100513e-01 -3.987113754463519344e-01 2.372333866522570167e-01
-1.542673750763874363e-01 -1.074593749193403225e-01 4.738697090961463410e-02
-3.860886390214085528e-01 -3.968699973322210584e-01 9.600314696475686915e-02
-4.448822844887750927e-01 -7.924040597568549060e-02 -2.111904718950332605e-01
1.780481487665523943e-01 6.672564790138957314e-02 2.093369754523911608e-01
4.722974876312057146e-01 -3.675350864807261919e-01 4.788830561431192123e-01
1.048250908846148910e-02 -2.732350307440430948e-01 -3.675526292828200647e-01
-4.687937962983642626e-01 3.758691759287935419e-02 -4.433594529044235788e-01
-2.144973941722828625e-01 3.849961601693069335e-01 2.191021153734939997e-01
-3.731794325067905316e-02 -1.269128946653585999e-01 -7.446748990167484372e-02
7.117508329512811649e-02 4.085461854331029485e-01 3.185240312762815940e-02
-2.514654167478819202e-01 -3.054526548182852075e-01 -4.811214469860786158e-01
3.832916473176442018e-01 -3.021901445677099840e-02 -1.908236357895877200e-01
-2.558171472183848882e-01 1.875739237771494317e-01 -4.708946261140107836e-01
1.446926424572486658e-01 1.981715828965584514e-01 3.620138571781109649e-01
4.381603886340349474e-01 1.082924837198844248e-01 -3.018498806567845305e-01
-4.508511202354900105e-01 -3.423745619818840957e-03 -3.294682196206982772e-01
3.419731406116257588e-01 -4.729148801319711382e-01 2.419327220164962933e-01
-2.230146911531560860e-04 1.164227061058356050e-01 -1.865074989581205767e-02
-4.756956054025063274e-01 3.086639077831317968e-01 2.447770255513591620e-01
3.368530936387479358e-01 -3.985897745250707169e-01 1.923024859007040899e-01
-1.982640323784562453e-01 4.049801789607395675e-01 1.480177843048525732e-01
1.637571876967320872e-01 -1.270427399836758786e-01 -2.718234354345098192e-01
1.331137638102898313e-01 1.960541135582215544e-01 2.331903792269385267e-02
2.149815925456604049e-01 -4.567026193125407474e-01 -4.585782138271478070e-01
4.751647962687285398e-01 2.529066781199437175e-01 3.435947527307643412e-01
-4.628837644373750004e-01 6.555802822803113994e-02 -1.942901689564946466e-02
4.592627661690239504e-01 -1.028447099217626448e-01 2.312546931424930285e-01
-4.207398761940794873e-01 -1.503723027209494800e-01 1.910434000847874847e-01
-2.316896127839559449e-01 3.530995917660355587e-01 -2.811112992036721714e-01
2.443341211913507838e-02 -4.825540099187070053e-01 -3.537349331344834535e-01
4.251314788669491307e-02 1.979551007300650589e-02 -3.572343915549045512e-01
3.486672308178438984e-01 2.630389098692058614e-01 -4.537895297754662716e-01
1.361946112519668572e-01 2.476025030733057797e-01 3.416029920270124975e-04
-5.784748238538506282e-02 3.526475348368464102e-01 -1.183428303531730563e-01
1.859767832296324030e-01 2.712844074211012702e-01 2.186337116837083761e-01
-2.977956605590840189e-01 8.334268509972930783e-02 -1.976878986691353868e-01
-3.364940568430333512e-01 -2.935213372904508233e-01 -4.644122731699252826e-01
-1.516954055553380032e-01 -4.758250940201708135e-01 -2.368647698734525076e-01
-2.574176373159318132e-01 2.558006124479181853e-01 -2.365204725760858828e-01
3.273104545454099679e-01 4.981771192928137193e-01 2.580843303950935974e-01
9.030536947182243868e-02 7.245341622560097505e-02 -3.282020767303333031e-01
2.285280057531738906e-01 -1.694620396065309453e-01 2.071705741476660423e-01
4.341717077837491390e-01 -2.860176773921703219e-01 -9.399943774347085945e-02
-1.799117195315510509e-01 -3.127861749959192084e-01 -1.803418732950463621e-01
-2.052420153282014104e-01 4.242518744160972410e-01 -5.161787664710493218e-02
2.900948369789249082e-01 -2.510403174276031324e-01 -3.429612212229664614e-01
-1.865958336764064196e-01 -5.075294624714155045e-02 -4.703832229931595998e-01
-1.723471733320381949e-01 2.098773615793358971e-03 -2.435785897599530569e-01
-3.197660648394251570e-02 3.722039402456910340e-01 1.036873528964599167e-01
-1.013490805398223893e-01 -2.236036147981900202e-01 -4.366994089308857685e-01
2.895041857271580810e-01 -1.341841717149789837e-01 -4.839380318350718913e-01
3.892279079782511308e-01 4.848422780080315908e-01 -4.647242104000718355e-01
-5.532063953645438570e-02 -2.093843790437474039e-01 -2.956124621730193969e-02
-2.781779348365785998e-01 2.301243767340587221e-01 -4.301111999354928495e-01
4.377687565302379458e-02 -3.667483917579763553e-01 -4.576204231516145526e-02
-1.682608500422632103e-01 1.815972404185479672e-01 -1.362470137189640829e-01
-1.392353892330391307e-01 -1.092346712853953239e-02 -1.482136484486699102e-01
5.293228346020750763e-03 -4.282189641110522027e-01 -3.492287925638321022e-01
2.346646822139845101e-01 1.147494735907085284e-01 2.479936103424733584e-01
-4.812194889070343651e-01 2.098307233349260281e-01 2.353340790638529523e-01
-4.321802804755481286e-01 3.497421865401519891e-01 -4.689723694071168403e-02
-3.673475806391847120e-01 3.821216077513334142e-02 -3.283824875197942639e-01
-3.073661989229922176e-01 2.583139823288949088e-04 1.931608098362900261e-01
2.737191814372099685e-01 -3.502373249005054090e-01 -1.232889492469054771e-01
-4.222492366560277599e-01 4.551465292901637483e-01 1.952336843463586824e-02
3.492403967595683056e-01 4.274097623401431623e-01 -2.028441958693494307e-01
-2.657773190300732891e-01 -5.721703805879363447e-02 2.430539324159486370e-03
6.903055279630676555e-02 1.064833879506962289e-01 -3.076305440218918275e-01
-1.676414483064755379e-01 2.953615015580458580e-01 3.648740662981961869e-01
-2.941557513211787711e-01 -3.704928177620692153e-01 -3.322744658998074696e-01
4.489867261694405753e-01 -3.930786166716200292e-01 2.874653436423121322e-01
-2.338698639606261453e-01 2.923583542047558659e-01 4.692893792124470664e-01
-4.915424905985409376e-01 -4.897629087340709120e-01 4.896886867597488591e-01
-1.262923838503507978e-01 1.611000053394806564e-02 8.378436808445588468e-02
-3.376925841903548609e-01 -1.461772645968842932e-01 -1.242053812136401092e-01
-4.509485577644634091e-01 -5.306270174299521081e-03 -4.210326644766432258e-01
2.692812503636993204e-01 -1.275249121712956901e-01 -7.533785240714829801e-02
1.503259965638248374e-01 -3.297866479461316613e-01 -1.658052021936875509e-01
4.468465615903703947e-01 -4.886978201094294150e-03 -3.217795839504031807e-01
1.398687977230957946e-01 2.243864447953900498e-01 -2.535751143489672899e-02
2.170198338517836945e-03 1.998094049763827762e-01 -3.501381368139194761e-01
-1.552057604806884594e-01 -2.164525679797018043e-01 -1.384074329659790159e-02
3.507580550646921536e-01 -5.034761775843044074e-02 2.541997604577204140e-01
-3.926283791786802091e-01 4.151036078699485987e-01 3.276292608562159092e-01
-1.174315272656167863e-01 3.574184875257713223e-02 1.166076905070152492e-01
-4.670786793707808471e-01 -9.639041567983297476e-02 2.140924600719782411e-01
4.254886567154622101e-01 9.935911088913484956e-02 -4.168327184294212673e-01
3.130919337423929694e-01 4.459460838925575210e-01 2.084565481475864068e-01
1.275304826579587436e-01 -2.594368658203383138e-01 -2.991736332155380262e-01
1.060875405524268622e-01 -3.419507574861160304e-01 1.276287668804434450e-01
-3.953950521916729244e-01 4.461233872953562773e-02 -4.748459201511094907e-01
-4.756720197580948106e-01 -4.774004725152342088e-01 3.019512140485230978e-01
-4.329425971878317903e-01 -1.683083666211286911e-01 4.485355861073825334e-01
-4.237856488193577631e-01 -2.006469318522003942e-01 -3.623752799534162294e-01
3.924317341399066184e-01 1.818274833462051321e-01 4.906150681132848135e-01
-1.231782768125487815e-01 -3.210447972901313562e-01 -2.968369274912400213e-01
8.983476820263081031e-02 -8.877042200988793930e-02 3.745294432804965323e-01
-4.636649782043122947e-02 -4.738540623011198161e-01 3.214869303434431114e-01
2.498226283250738478e-01 -3.622056793911309081e-01 -1.147050900251421757e-01
-1.768048083320261643e-01 -2.337775781822155619e-01 2.179129494664544531e-01
-4.762506907267417544e-01 -3.171477810811151876e-01 -4.082779022972247152e-01
-2.137695140751844081e-01 -2.557358495637692686e-01 4.615059645023849022e-01
-3.578019135373400328e-01 -5.638220748178535136e-02 4.245101753573981007e-01
-2.097195343172689741e-01 -4.574813210748956971e-01 -2.602845207720212439e-01
-5.394289192321699566e-02 3.873588300545907082e-01 3.527023920432011961e-01
3.310662979874323675e-02 2.906224098925628274e-01 -2.803433563431937392e-01
4.121055092932979225e-01 1.018445385967209349e-01 2.768320560058232793e-01
1.672657959256120819e-01 -4.879354712433697783e-01 2.617891201111586241e-01
-1.394747120357718861e-01 3.058547904989012967e-01 2.187684745898922367e-01
-1.861398876601723096e-01 2.112495628475089537e-01 1.396129579155125366e-01
4.268105690568277932e-01 -1.562201585180560404e-01 -5.955278767420890684e-02
-8.300489924862863855e-02 3.393776374581484179e-01 -4.177681218026155774e-01
-1.305034628797874241e-01 -4.526621540554036649e-01 -4.050268837778664421e-01
3.531292965789678551e-01 -3.796977563505863351e-01 -1.734316348056516022e-01
4.357560984685019401e-01 -4.870057599668295989e-01 1.939071522691887539e-01
2.094039567031207305e-01 2.163532869015956095e-01 -4.320039878842050207e-01
1.444784615880670975e-01 -4.288960066633206170e-01 3.389997481004140001e-01
-3.734275946447629391e-01 3.494196128521126488e-01 3.369230353499400588e-01
-3.197315121412391825e-02 -1.039273209106794660e-03 3.694381373224127074e-01
-4.923171506200528791e-01 -2.647846332723533536e-01 2.980462916362125458e-01
-1.419822243268230588e-01 -9.263281495200414994e-02 -2.169532267207116005e-01
2.023971314106679520e-01 1.588905121262909059e-01 -4.019120968896299217e-01
-4.890012952755240505e-02 -3.094539262560991322e-02 4.352733754435609281e-01
-1.655999739406186499e-01 4.052825234267558585e-01 -3.009491274195514876e-01
2.657574127904142047e-01 1.495039773354610579e-01 -8.577877334587757918e-02
-1.823369745061869107e-01 -2.986766066118736740e-01 -2.694922803647765708e-01
8.135701753086865828e-02 4.138112925936383579e-01 -3.172123311330851125e-01
3.524358202407629204e-02 -2.277217254972646598e-01 4.873835202871165118e-01
-2.734232578015349802e-02 8.083408952295756400e-03 -2.848157418166711308e-01
4.187300123723625145e-01 4.997014896341905876e-01 2.228219127125011800e-01
3.972180846700987811e-01 -1.984290080177294469e-01 1.107869062893815926e-01
-3.296804506073940377e-01 -3.554827129995848933e-01 -1.981855397408595065e-01
-4.773689428592448047e-01 -3.286419715734035796e-01 2.853607795119638135e-01
-3.365991301263377977e-01 2.312178449711504991e-01 1.300773105821986242e-01
-4.863724242931174446e-01 4.623014971988278488e-01 -1.000765434109940344e-02
3.643816574986269430e-02 -3.812780428318451875e-03 4.412543129991824964e-01
-1.648822437862351720e-03 -2.284458750792769388e-01 1.600292844119171054e-01
4.486849125609424505e-01 1.609818435509027257e-01 -2.145354835224999590e-01
4.457825421311848446e-01 1.697855020837391038e-02 2.050331475895007527e-01
-2.057781374379666905e-01 1.136055092353729368e-01 1.030609415853587230e-01
3.118457716804818869e-01 1.905298790433561651e-01 4.837111878002918752e-01
-3.984461255451466899e-01 4.919842659653633765e-01 -3.644285882082880512e-01
-8.904777735071789380e-02 1.019709899159301214e-01 4.469136540589427886e-01
2.962486203038744437e-01 -2.836730519394397021e-01 -2.876160634489451917e-01
2.145030466654886947e-01 3.859844200036033346e-01 4.614104199316791943e-01
-4.695349936721938677e-01 -3.625243319390444308e-01 3.050038806094783617e-01
-1.387344632974542025e-01 -1.735683577082961504e-01 -1.977214731638576861e-02
-3.545858263854885228e-01 -3.538369262102598611e-01 1.609227142688870460e-01
2.772487008805695208e-01 1.952675219125712403e-01 2.685245472176076564e-01
4.654766229905082930e-01 -4.310864592708409937e-01 3.145678671607393673e-01
2.511779712736249559e-01 4.908473642535596815e-01 -9.173812217708376959e-02
-4.904859702856568804e-01 3.600728939717401378e-01 1.236253204577764109e-02
-4.896080494006105344e-01 -2.848104122481167622e-01 4.686416510401169022e-01
4.051562095824006171e-01 2.894886336627117140e-01 2.971318485406579946e-01
-3.042313115189100303e-01 -1.563092482814977258e-01 3.644410051835219599e-01
6.013512030867018687e-02 1.496225646836697454e-01 -1.501936807609799418e-01
-2.963751137946313285e-01 2.881868675113028466e-01 2.702018808438170216e-01
-8.141911403483759191e-02 -3.928400086887365861e-01 2.379456219191492528e-01
-1.227536837213676346e-01 4.909728910540334113e-01 -3.859875825095464563e-01
1.705311058786931344e-01 3.977300322515306963e-01 3.024353653937593700e-01
3.048916575681790420e-01 1.512789284068017936e-01 -2.592853803138506219e-01
-1.111627259241612098e-01 2.591857752010662264e-02 -1.944129429608185688e-01
3.731651294832049048e-01 3.936467969864931860e-02 -3.866235043785412051e-01
-2.270508124518864079e-01 -2.471319090057849666e-01 4.043687987497870395e-01
-1.929183739967399447e-02 -6.598998699880664898e-02 1.157496661910063507e-01
2.719917856876034046e-01 3.789234835197441420e-02 -1.940102633538370869e-01
-1.001986406802283236e-01 3.232028554922913299e-01 2.099670268703401899e-01
-3.155951311957357897e-01 -3.375224576257818132e-01 3.644447575242697468e-01
-1.990925944845843842e-01 -4.174142321788482102e-01 -1.178816224273906421e-01
-4.790259594428192269e-01 -1.814196776959186019e-01 -4.380598840214988687e-01
-7.293540224647421244e-02 2.044350447734138987e-01 -4.408142309796639902e-01
1.600682772942441101e-01 -1.265507605102357269e-01 -2.869913291354828644e-01
2.154822674350298506e-01 2.339210654798575817e-01 3.452615907692635489e-01
-2.322742759217805153e-01 3.319771580106065656e-01 4.423838824763758337e-01
-3.100465363952520370e-01 -4.572981021731439277e-01 -2.155438634930734176e-01
3.816919164776626516e-01 2.404071756401682247e-01 -4.696406927072636073e-01
3.428015916575990474e-01 -4.363930821352730582e-01 4.212481196434049169e-01
-2.313724331644755328e-01 -1.357642541987125195e-01 4.172438180935338359e-01
2.398125264584677341e-01 -4.080983688277973753e-01 -9.885122338156415722e-03
3.432932269569985984e-01 -2.478692795445917030e-01 -3.387665410240420227e-01
-1.198248537486954479e-01 9.081878090569528439e-02 3.417527707456976538e-01
-1.020962338477067188e-01 -2.369538235509269786e-01 4.265737869575517704e-01
4.565939673672075871e-01 -4.096483975687350565e-01 1.740109954075528265e-01
3.670739969532191838e-01 -1.496535686648946539e-01 2.536869853572898403e-01
4.626442619970435599e-01 2.795416692140008097e-01 -2.312386400890085181e-01
3.007023723171973195e-01 -3.777388285839927695e-01 -3.671943069176426544e-01
2.365920296233545717e-01 1.862290483453252765e-01 -4.968016239644081899e-01
3.405826517931643815e-01 -3.388614141805256219e-01 -4.072735346648689303e-01
8.891013078267662184e-02 -2.403313177263705080e-01 -1.971929428374932236e-01
7.030721418446239657e-02 -4.882340501169623037e-01 2.925705115050842853e-01
-1.133987555257643942e-01 -1.533544354464755344e-01 4.341418240678722729e-01
3.218789523284615317e-02 2.210254252039578482e-02 -1.859971847419852331e-01
4.330267499525960462e-01 -3.530449616943194258e-01 -1.164208730107998413e-01
1.658999480310022756e-01 3.818311089366637212e-01 -2.959619425596188291e-01
4.505814004029239372e-01 5.328626246527257138e-02 -4.457154352123028351e-01
-3.585178080317198424e-01 -3.427027878683815976e-01 -4.443843105438172181e-01
3.565055484382093631e-01 -1.925095881285718846e-01 2.519182330517734103e-01
1.832675754760271225e-02 1.390087600417651004e-01 1.843677674770024533e-01
3.744121896110501613e-01 -7.582792990054265658e-02 -4.797364363920197938e-01
4.478710337078880555e-01 -1.392252748910859372e-01 -4.231955881325755175e-01
-1.617014047929388187e-01 -3.290742378586053452e-02 -1.273747019938763492e-01
5.119528885645341365e-02 4.756595867333516248e-01 -4.933623409946106264e-01
8.162869249233373203e-03 1.972270749845933535e-01 2.624626132235562403e-01
-1.502285333430298797e-01 1.036011401301984991e-01 5.431462356009497672e-02
-3.936441554478442573e-01 1.246279655949003029e-01 -4.616202528578345898e-01
4.607707542477823548e-01 4.199172487169133827e-01 3.536272670279150265e-01
8.639878273186751834e-02 3.160786689941113003e-01 1.655414463994776542e-01
-3.970792514652146110e-01 1.235922710402947988e-02 -1.375208665567506650e-03
-2.200821979834352016e-01 -6.901119352971385457e-02 -4.381211606270070114e-01
4.431950395500066087e-01 -2.896358863548960105e-01 -4.011305753093286075e-01
3.925654799120007477e-01 -3.201535094966143635e-01 1.382873531481710883e-01
-2.011604004962973535e-01 2.588625004051947620e-02 -3.784689005858846711e-01
-1.060664699766693531e-01 -1.840983935224049794e-02 -3.908587675045234189e-01
2.370571228951237064e-01 -4.754660185523678084e-01 8.451664715797013727e-02
4.555795818891796856e-01 -1.460266422906427719e-01 3.019903939509940294e-01
2.840463723105546290e-01 2.648554047854118076e-01 1.577590792342214998e-01
1.249225143866630194e-01 4.509384203642405886e-01 3.313612726063199787e-01
-3.671118631575253088e-01 4.395318132521186527e-02 1.813932030909820581e-01
-1.624976763857259865e-01 6.313429636935274925e-02 2.914901952440763777e-01
-2.004293972193070816e-01 3.631207169028550785e-01 -2.582148382260884834e-01
2.316588308798304130e-01 1.637460019789427346e-01 1.082568619589280301e-01
-1.794476844455337172e-01 -3.433877637916091796e-01 8.423779617833904165e-02
-2.778481359442808163e-02 -4.360161521875349777e-02 -5.170332105113206733e-02
-2.282876563248272817e-01 1.169352646518990735e-01 4.347178508828325461e-01
-1.679564580355163983e-01 -2.428285373874498054e-01 2.537825849560053637e-01
-1.603729566220999381e-01 3.829764290301674867e-01 1.313447159258128716e-01
4.958543475209277185e-01 -3.482020953294286958e-01 -3.423851328418964224e-01
3.034448399821696452e-01 2.448894097259226577e-01 2.342852853363686094e-01
-1.095847518147236022e-01 3.856989017005940656e-01 4.615284076338239672e-01
-2.150883353976498213e-01 -1.029783339317774660e-01 -2.843720833219182120e-01
2.490947524976224736e-01 -1.794507286922873979e-01 -1.150384372967021562e-01
-1.054641786017420646e-01 4.888990428412327560e-01 9.406904186333830964e-02
1.256034754732687775e-01 2.755539082648487126e-01 -2.419796809685803574e-01
4.661877035927818325e-01 -2.246120125118012956e-01 -2.848351634873718119e-01
-2.784813880783132412e-02 4.083504456119031456e-01 -2.221465846824355328e-02
-2.365713986813909875e-01 3.219962863705312373e-01 -1.130192052446370443e-01
-5.563547237501509368e-02 4.893728044354332951e-01 4.221930192696169426e-01
9.127229358618704769e-02 1.243853430864971799e-01 -4.045946931330925977e-01
-1.744822391149916108e-01 1.929762862685080460e-01 -3.982720438378946071e-01
9.176631806562252081e-02 -3.123303678651527804e-01 1.849443341655733208e-01
-6.108151355933855164e-02 4.613142265829857092e-01 -3.680294325645484532e-01
-3.852158656515065616e-01 1.849769229957130001e-01 2.018268633413984325e-01
-2.545597807320004735e-01 1.239420715380724625e-01 -1.480961046313401530e-01
1.959375361007772431e-01 2.584290560207033183e-01 8.295111737964822041e-04
2.036641623650841115e-01 4.931678653419550029e-01 -3.357483089481880789e-01
-2.082738398096829480e-01 4.187604531942962227e-01 2.961062677742518634e-01
3.753166893860780950e-01 5.255101478817281180e-02 4.548355643104416979e-01
-3.108295114909715995e-01 -2.574121655313432733e-01 4.089985834837281953e-01
-4.876966655847569942e-01 3.265466788745041704e-02 5.484826472638271166e-02
2.935385126123468691e-02 4.683057451680805450e-02 -1.800356614877055561e-01
-4.347959475567128029e-01 -2.827170989627800779e-01 -4.452424545958995061e-01
6.545612449282423029e-03 -1.855371170969531969e-01 -3.234631199337152374e-01
-3.712656433040101289e-01 4.196390272472114713e-01 -2.861312645404933130e-01
-1.999074026033851315e-01 -2.753428281532002142e-01 -3.579077765858201809e-01
-4.486655862709332254e-02 -1.086955162284979348e-01 -3.404885619008622966e-01
-1.181173802031422193e-01 2.046634599082208794e-01 -2.469988397407434366e-01
-2.726514271488403862e-01 1.057597347871217508e-01 -4.056890396533796572e-01
-2.719848421428348040e-01 -1.505344347610320099e-01 -1.064630090869783663e-01
8.100676930612904503e-02 -4.483497203818920251e-02 -1.144313134757033446e-01
-1.080975321441562942e-01 3.144953028784768234e-01 -1.955116292987953974e-01
-3.730729012154493374e-01 2.677665096741465023e-01 2.683246400665783016e-01
-8.127095067201006717e-02 7.606552465645377570e-02 4.614455771912995274e-04
1.288743804064441667e-01 -2.158652872327937455e-01 -2.934540607194037198e-01
-1.154842741355922575e-01 1.096980236033913148e-01 1.012069974656227833e-01
2.368070494244001178e-02 4.884182236281816580e-01 4.872889921916300215e-01
3.895043085246935322e-01 2.686350164874100610e-01 4.063490122579040964e-01
2.150801669820859852e-01 1.979104047783070142e-01 -4.328595440159288543e-02
-3.988052349005931640e-01 1.279270747453535861e-01 -2.150046725174414863e-01
-4.028966899470898255e-01 -1.485939109785546774e-01 -2.920636173306407901e-01
4.864539905501698014e-01 4.984107073866510529e-01 3.947457888946692695e-02
1.572854481102502477e-01 1.086748892760378560e-01 2.788434180789334249e-02
-1.652154536395851192e-01 -2.389642709643463592e-01 1.156217312928830010e-01
-6.076662879623717650e-03 2.921282438350479849e-01 -1.581394013347957594e-01
3.505308435564585823e-01 -1.080486611333396629e-01 3.501151289389525800e-01
2.241270329624683866e-01 -9.786702322171603186e-03 -4.775879614165530196e-01
-2.041518934590713652e-01 -3.647121724872256499e-01 4.511300732995571217e-02
-2.089707972077374798e-01 -1.835864345658145824e-01 -2.742066007313773701e-01
2.911003989910676548e-02 2.457946724212023426e-01 1.297181599294511267e-01
-2.755385837666793902e-01 -4.780938402362726602e-01 2.344673123418419269e-01
-4.612964550774963923e-01 4.314056456324926181e-01 1.180447257785389725e-01
9.232506161618569962e-02 -2.539346593264887320e-01 1.631874164930713356e-02
2.572367307084766352e-01 4.193412503652802492e-01 -1.077624460718615840e-01
4.782307602929165569e-01 -1.168364065235518723e-01 3.426471087560482021e-01
-3.392225385827020157e-01 -3.848818888789647952e-01 -4.787099084707231444e-01
-2.164374261407532307e-01 4.187608215141905843e-01 -1.123682357426781797e-01
7.984652575298778476e-02 5.175392052506389007e-03 4.895696855365452294e-01
-3.517052886166095460e-01 4.618471706244009489e-01 3.701686474466300281e-01
-9.356194851383159428e-02 -3.007361757583408846e-01 -2.281286267665427747e-02
-5.742663084279397978e-03 -3.484830589940268730e-01 -2.502190496775855699e-01
-2.083556634815536546e-01 2.765828044501859040e-01 -2.503431646334808303e-01
6.695439777616840615e-02 -3.468882056080980769e-01 -1.593151583286495088e-01
4.488089911267630905e-01 -3.904272707919866914e-01 -2.625435527091197763e-01
2.877430384079359138e-01 -2.122551738984806979e-01 1.268630238006819289e-01
-2.899926442378859548e-01 -9.164407347824510275e-02 2.307108678598429607e-01
-7.902852169885965505e-02 -1.349594030164913416e-01 3.824181908065331648e-01
3.042715450688708856e-01 4.484589151470061985e-01 -3.197669457531375770e-01
-9.749481064207232706e-02 -3.079317515371152725e-01 -7.811097856688298258e-02
-8.572815916331510966e-02 -2.695187446285332022e-01 2.405353963369549763e-02
3.772289274350674182e-01 -1.677565953235592433e-01 -4.918164522348014156e-01
2.925233144049623757e-01 -2.517600894052721694e-01 -2.815621311666348658e-01
3.670556673619912447e-01 -2.821288129003584055e-01 -3.807717990771638528e-01
-2.082900223055528244e-01 1.842665282152191608e-01 -4.009375933493445343e-01
-3.698658230318644380e-01 3.219906405254046033e-01 -1.688153283362362478e-01
-1.233424843423442940e-01 3.439362247872125300e-01 5.365041333610676144e-02
-4.354356049014440622e-02 -3.991146061581580806e-01 -5.459375005151312354e-02
3.930850440264164192e-01 2.875142716936556209e-01 1.143475075658999529e-01
-2.975132704950289586e-01 3.594511088082095185e-01 2.500525898672297798e-01
-3.340410780235042454e-01 -1.771740122179066290e-02 -1.443565687501203731e-01
-1.645165447737665376e-01 -6.673799939388502800e-02 3.583613090371448040e-01
-3.326661875814194147e-01 2.253065071193697255e-01 4.089365585356518062e-01
-3.909560301296564067e-01 2.090790630511896175e-01 4.112997367201519650e-01
-1.194170008645168979e-01 2.803082965166390217e-01 3.285668621396998779e-01
2.184699080057931342e-01 -3.477514353761497201e-01 -2.456205145953112012e-01
3.845888706304443350e-01 2.829039835597697561e-01 4.782779998975386082e-01
1.271177646524281890e-01 -1.840695867777701888e-01 3.316968756717567635e-01
3.452495530878061381e-01 4.844949471028159316e-01 5.109894034188777745e-02
1.234643351877259265e-01 -2.684207585908832128e-01 -4.908812960030155548e-01
-2.987637938582097252e-01 -4.756570045426868898e-01 -1.014519456988327573e-01
1.167243301286147172e-02 3.891797720933282134e-01 -6.200703027644849374e-02
-3.861485065443307496e-01 2.464760796362137629e-01 -3.885809126638197775e-01
2.630898907696266331e-02 -4.248247979608644753e-01 -2.676816955694810707e-01
-2.078774400233812658e-01 -3.037305429687334746e-01 -2.480055633688010852e-01
-8.675374755005038629e-02 6.814744238223813255e-03 2.435037185508489577e-01
1.713707477965640269e-01 -3.916530472644325078e-01 -2.658469029052751287e-01
-4.336224610652084088e-03 4.709991887650945008e-01 -2.020245275106983263e-01
1.980383681309144661e-01 -3.208657125892238060e-01 -4.824320329815927622e-01
2.059758569633510783e-01 2.407115931646341966e-01 -2.414520276062397386e-01
-3.638326966927762918e-02 6.405337621755224919e-02 -2.488720066066552050e-02
3.542174830356229487e-01 -2.971316876458840461e-02 -2.640386146460038663e-02
-1.799345407283527987e-01 3.524668944494183664e-01 1.954249963057985706e-02
-7.525828415976942853e-02 -1.500151535823490700e-02 2.844570108017608900e-01
4.259141038558229564e-01 4.803513138201458421e-01 -7.949159094556135230e-02
-1.530218914921037676e-01 7.939104161438059748e-03 -7.663412939631275567e-02
1.455547434103683369e-01 2.415470027102636363e-01 -1.613878226974396757e-02
1.659205438267554733e-01 -3.690219840157326070e-01 -3.022966138578504491e-01
-1.004543895111219554e-01 4.563074073866845159e-01 -1.193222700906803047e-01
-4.226512876231692806e-01 -1.947902753505578177e-01 2.383884966644289616e-01
1.374508121462902910e-02 -1.466123796721626737e-01 2.380104508658088536e-01
-9.589668698409692382e-02 7.359675991795278094e-02 3.989131852212896012e-01
1.964593302044984613e-01 1.951235851931163445e-01 5.047063948662688926e-02
-1.376675693899518382e-01 -6.147908003129920473e-03 -4.779130148291995672e-01
4.192468697638705999e-01 -3.197677815751950314e-01 -7.415545341810014790e-02
-3.632824759692617755e-01 4.116510052761674920e-01 -1.447674461964676418e-02
-4.058610227174891394e-01 -3.782064700919353095e-01 1.542501763055825759e-02
2.741199603734967294e-01 -2.797856469176680516e-01 3.548164354351890371e-01
4.920892631323303679e-01 -3.903848739688754454e-01 3.287709897712881579e-01
3.032286657622460524e-01 7.264316937611847713e-02 -7.793556841545012936e-02
-3.354644559153651118e-01 4.562298968100270136e-01 1.681188121840344607e-01
-2.028934112115237109e-01 3.388838916036496229e-01 -4.359084773506918253e-01
-3.935519526235836674e-01 3.728984242736238519e-01 -4.659410716941815300e-01
-1.354224530808734173e-01 3.579914380705717658e-01 -1.854261875535503368e-01
4.803532684024667265e-01 2.859602744909595096e-03 2.644155546670886592e-01
-1.421543839453284219e-01 -3.512225479531128070e-01 -3.395910837570139673e-01
-2.262007798367935418e-01 -7.493004399177038977e-02 5.835517545166102327e-02
-2.512384933419512523e-01 -3.991030959528496513e-01 -1.809454677551113333e-01
8.222059867118891585e-02 8.507844816253173903e-02 -6.810847946628240113e-02
-1.607942774733852609e-01 -2.511740604253135389e-01 -3.405501072635245263e-01
3.873304978159888279e-01 -4.849165925554377310e-01 3.260419448589568781e-01
1.235313447597269354e-01 3.769207627707527042e-02 -3.426240690486954676e-01
-3.122076512548559446e-01 2.098975225582483395e-01 -1.541578167655361931e-01
3.651065704494804720e-03 -3.696305796102898888e-01 -8.192778349991691744e-02
-2.784267503135129385e-02 -4.663786806969563159e-01 4.464873726794992281e-01
3.195814068200701907e-01 -1.670528470364737172e-01 1.523462551920763408e-01
-2.383278290048767012e-01 -4.329870913006060862e-01 2.284712910127140173e-02
1.234728783380831807e-01 -3.882264872924103827e-01 -3.681131090340951095e-01
1.752843752025347035e-01 3.559984797371144039e-01 -3.285084995049050161e-01
4.873564664906792077e-01 2.943761408830550819e-01 1.397060885072941572e-01
-3.457640477838546111e-01 -1.400679153775927777e-01 -1.603003722467666314e-02
6.863160980543514533e-03 -2.503515037358911011e-01 4.087411676522222370e-01
-3.004478296706553087e-01 -1.263180374240135961e-02 6.475031325202584842e-02
-2.956417596895131172e-01 1.329995044836853602e-01 2.189329838072510137e-01
-2.051418029474766369e-01 -4.609943671699635592e-01 4.092371504225341683e-01
